NORM_ASCII
1920 2114
   6.3892500   -9.2175000    2.4002500    0.1619877   -0.4939584    0.8542629
   4.0215000   -4.8300000    2.7967500   -0.3782708    0.5599433    0.7371395
   3.8255000   -9.2175000    2.4210000   -0.3572868   -0.6101286    0.7071698
   3.7977500   -5.5612500    3.1180000   -0.4817341    0.3387075    0.8082137
   2.8887500   -7.0237500    2.7432500   -0.6690902   -0.0948257    0.7371068
   5.8715000   -5.0250000    2.7767500    0.1778175    0.0153697    0.9839434
   6.1540000   -5.5612500    2.6775000    0.0012232   -0.0892384    0.9960095
   5.3710000   -4.7812500    2.8632500    0.1497681    0.2243587    0.9629292
   6.6782500   -6.5850000    2.6797500   -0.0500273   -0.0321453    0.9982304
   4.8310000   -4.7812500    2.8892500    0.1275359    0.2062187    0.9701590
   6.0090000   -8.0475000    2.6682500    0.0106818   -0.0598426    0.9981507
   4.5767500   -5.2200000    3.0047500    0.2783109    0.2954889    0.9139088
   4.2312500   -8.0475000    2.6930000    0.0254671   -0.1165712    0.9928558
   4.6850000   -5.5612500    3.1425000    0.3502318   -0.0204541    0.9364397
   3.7665000   -6.4387500    2.9127500    0.1518377   -0.3106317    0.9383247
   5.1062500   -5.5612500    2.6725000    0.2206664   -0.1163514    0.9683846
   1.2655000   -4.2937500   -0.2955000    0.2333502    0.2716035   -0.9336912
   1.5440000   -5.5612500   -0.3225000    0.1835472    0.0563482   -0.9813946
   0.3550000   -5.5612500   -0.4085000   -0.0685064    0.0137824   -0.9975555
   1.9637500   -3.3675000    0.4455000    0.7525598    0.5351687   -0.3837293
   2.3817500   -5.5612500   -0.2137500    0.7994187    0.0329265   -0.5998713
   0.6972500   -3.5625000   -0.2857500    0.0955176    0.3719261   -0.9233349
   0.9487500   -2.0512500    1.0982500    0.3478604    0.8968338   -0.2732808
   1.2537500   -6.7800000   -0.3395000    0.0800013   -0.1453686   -0.9861378
   1.7722500   -7.4625000   -0.0030000    0.5468910   -0.5178436   -0.6578360
   0.0115000   -3.5625000   -0.2685000   -0.1577003    0.3386962   -0.9275858
  -0.6057500   -4.2450000   -0.1745000   -0.3763377    0.1925336   -0.9062565
  -0.9162500   -5.5612500   -0.0912500   -0.4563921    0.0201377   -0.8895509
  -0.5890000   -6.8287500   -0.2027500   -0.4071849   -0.1524735   -0.9005289
   0.0160000   -7.4625000   -0.3412500   -0.1688211   -0.2884687   -0.9424889
   0.6852500   -7.4625000   -0.3302500    0.0370866   -0.2690295   -0.9624176
   1.9440000   -3.3675000    1.2597500    0.8433494    0.4148255    0.3415868
   2.4660000   -5.5612500    0.8105000    0.9942448   -0.0675959    0.0831145
   0.9260000   -2.2950000    1.7227500    0.3679355    0.7391896    0.5641119
   1.8205000   -7.5600000    0.8882500    0.7318368   -0.6787941    0.0604441
  -0.2442500   -2.0512500    1.0845000   -0.2709921    0.8869511   -0.3740068
  -0.2107500   -2.2950000    1.7420000   -0.1493103    0.9477263    0.2819953
   0.8117500   -8.2425000    0.2307500    0.1975702   -0.8060296   -0.5579269
   0.8127500   -8.2912500    0.9442500    0.2159343   -0.9442264    0.2486139
  -1.4167500   -3.1237500    0.9705000   -0.6837125    0.5188873   -0.5131210
  -2.0655000   -5.5612500    0.8590000   -0.8536088    0.0022481   -0.5209097
  -1.2455000   -7.7062500    0.5440000   -0.6778616   -0.5448854   -0.4935622
  -0.1195000   -8.2425000    0.2185000   -0.2246521   -0.8457142   -0.4840444
   1.7552500   -3.6112500    1.9767500    0.6351074    0.1721625    0.7529931
   2.4297500   -5.5612500    1.6527500    0.7525975   -0.0133104    0.6583463
   0.7860000   -3.0262500    2.3550000    0.2769742    0.3286405    0.9029290
   1.6112500   -7.2675000    1.7060000    0.6394852   -0.3955638    0.6592329
  -0.0890000   -3.0262500    2.3755000    0.0324247    0.5055953    0.8621612
   0.6757500   -7.4625000    1.7660000    0.2370872   -0.7458877    0.6224477
  -1.4692500   -3.0750000    1.8412500   -0.6695311    0.7252556   -0.1604137
  -1.4532500   -3.0750000    2.7885000   -0.2160631    0.5576245    0.8014809
  -0.1185000   -8.2912500    0.9320000    0.0343451   -0.9425089    0.3324114
   0.0067500   -7.4625000    1.7550000    0.0107070   -0.8266776    0.5625740
  -2.3482500   -5.5612500    1.9340000   -0.9845594   -0.0505454   -0.1675944
  -1.3425000   -7.8525000    1.4267500   -0.5441142   -0.8283588    0.1332725
   1.1012500   -4.5375000    2.1992500    0.3159770   -0.1650970    0.9342920
   1.4090000   -5.5612500    1.9262500    0.2347223    0.0444856    0.9710440
   0.5760000   -4.1962500    2.4590000    0.1803470   -0.1397150    0.9736296
   1.1412500   -6.6337500    2.2597500    0.3450654    0.1953133    0.9180319
   0.1245000   -4.1962500    2.4610000    0.0716308   -0.1548505    0.9853377
   0.6235000   -7.0725000    2.6365000    0.2956031   -0.0988619    0.9501816
  -0.5045000   -4.3912500    2.5107500    0.2453521   -0.1568041    0.9566686
   0.0712500   -7.0725000    2.6180000   -0.1328895   -0.3534056    0.9259832
  -2.7005000   -5.5612500    3.1937500   -0.6425135   -0.1132947    0.7578527
  -0.9725000   -5.5612500    2.5407500    0.2462754   -0.0249521    0.9688786
  -1.3187500   -7.8037500    2.4907500   -0.2904955   -0.6744364    0.6787842
  -0.5370000   -6.7800000    2.5667500   -0.0234607   -0.1026251    0.9944434
   0.3682500   -5.5612500    2.0387500    0.1752503    0.0308053    0.9840419
  -1.8212500   -4.1475000   -0.5387500    0.4088034    0.1829723   -0.8940922
  -1.4380000   -5.5612500   -0.6177500    0.5814243    0.0184183   -0.8133920
  -2.8412500   -5.5612500   -0.5275000   -0.2029012   -0.0826100   -0.9757083
  -1.5865000   -3.8550000    0.1595000    0.8845015    0.2673333   -0.3823480
  -1.3245000   -5.5612500    0.1610000    0.9893586    0.0974987   -0.1079976
  -2.4665000   -3.5625000   -0.4612500    0.1454090    0.2894098   -0.9460963
  -2.3282500   -2.7337500    0.1440000    0.4120422    0.6462289   -0.6423468
  -1.7617500   -7.0237500   -0.3167500    0.4230771   -0.1901662   -0.8859134
  -1.1360000   -7.8525000    0.4195000    0.9839876   -0.1011512   -0.1467542
  -3.1800000   -3.5625000   -0.4605000   -0.3274017    0.3387727   -0.8820664
  -4.1417500   -3.7575000    0.0355000   -0.7188793    0.2246406   -0.6578367
  -4.9862500   -5.5612500    0.5232500   -0.7514416    0.0603785   -0.6570311
  -4.2270000   -7.4625000    0.2487500   -0.6068688   -0.0639135   -0.7922281
  -3.2062500   -7.8037500   -0.0250000   -0.2601454   -0.1843463   -0.9478084
  -2.4485000   -7.8037500   -0.0377500    0.1115620   -0.2515630   -0.9613896
  -1.5175000   -3.7575000    0.9500000    0.9302739    0.3540418    0.0961507
  -1.4322500   -5.5612500    0.7367500    0.9998228    0.0157796   -0.0102649
  -2.2277500   -2.1975000    1.1405000    0.4793756    0.8592516    0.1785659
  -1.2730000   -7.6575000    1.2415000    0.9200397   -0.3172237    0.2299915
  -3.3037500   -2.7337500    0.1440000   -0.3808596    0.8650634   -0.3265137
  -3.3927500   -2.1975000    1.1435000   -0.2290680    0.7354253    0.6377127
  -1.9797500  -10.3875000    0.6455000    0.5904958   -0.6721433   -0.4466969
  -2.0732500   -9.9487500    1.7172500    0.4248252   -0.6015967    0.6764651
  -4.4822500   -3.3187500    1.3400000   -0.7535476    0.5874858    0.2950025
  -5.2980000   -5.5612500    2.5577500   -0.9307135    0.1983719    0.3072798
  -4.9347500   -8.3887500    1.6040000   -0.9833560   -0.1611618   -0.0838913
  -3.6687500  -10.3875000    0.6462500   -0.6315065   -0.6330847   -0.4476643
  -1.6272500   -3.9037500    2.0500000    0.5711336    0.1720462    0.8026248
  -1.1302500   -5.5612500    1.7742500    0.7733385   -0.0409465    0.6326697
  -2.4425000   -3.3187500    2.2922500    0.2267833    0.2977419    0.9273182
  -1.6995000   -7.0725000    2.0455000    0.5773982   -0.2467363    0.7782882
  -3.2005000   -3.3187500    2.3050000   -0.0452799    0.1401636    0.9890925
  -2.4987500   -7.4625000    2.2597500    0.1837587   -0.1611875    0.9696656
  -4.0620000   -3.8550000    2.1077500   -0.0725637    0.3431304    0.9364807
  -3.5145000   -4.5862500    2.1987500    0.1582139   -0.0202337    0.9871975
  -3.5887500   -9.9487500    1.7430000   -0.4380849   -0.4880110    0.7549350
  -3.1400000   -7.4625000    2.2650000   -0.1110859   -0.0388378    0.9930516
  -4.0460000   -5.5612500    3.0552500   -0.0609111    0.1682882    0.9838541
  -4.3252500   -7.5600000    2.3687500   -0.5905483   -0.1366177    0.7953542
  -2.8247500   -5.5612500    2.1092500    0.0902463    0.0000051    0.9959195
  -3.2762500   -5.5612500    2.1112500    0.2239578    0.0678813    0.9722320
  -3.4420000   -6.3900000    2.2032500   -0.0997298    0.0492520    0.9937949
  -3.6242500   -1.5150000   -0.3415000    0.5926897    0.0706594   -0.8023255
  -3.4952500   -2.5875000   -0.3042500    0.6750081   -0.1510042   -0.7221924
  -4.4132500   -2.5875000   -0.5342500   -0.1374231   -0.2224744   -0.9652047
  -3.3612500   -1.1250000    0.3735000    0.9721852    0.2293866   -0.0473035
  -3.1932500   -2.5875000    0.7330000    0.9949368   -0.0573099    0.0825613
  -4.0995000   -0.7837500   -0.4280000    0.2512148    0.2249983   -0.9414175
  -3.9640000   -0.1012500   -0.0120000    0.5882266    0.7827847   -0.2030702
  -3.7022500   -3.5137500   -0.0110000    0.5225193   -0.4634502   -0.7156727
  -3.4122500   -3.9525000    0.9817500    0.9154584   -0.3727129    0.1517268
  -4.7122500   -0.7837500   -0.4065000   -0.3103519    0.2194029   -0.9249563
  -5.1930000   -1.5150000   -0.1590000   -0.6240819    0.0241698   -0.7809850
  -5.2947500   -2.5875000    0.0825000   -0.6739282   -0.1593401   -0.7214094
  -5.0977500   -3.5137500    0.1962500   -0.5404221   -0.3961560   -0.7422967
  -4.6667500   -4.0012500    0.2950000   -0.2050865   -0.5917537   -0.7795942
  -4.1710000   -4.0012500    0.2812500    0.1708586   -0.6218404   -0.7642787
  -3.7405000   -1.6612500    1.3552500    0.6299173    0.3374958    0.6995004
  -3.7740000   -2.5875000    1.6735000    0.6730301    0.0711674    0.7361832
  -4.1020000   -0.7837500    1.0715000    0.2752449    0.5894016    0.7595038
  -3.9235000   -3.2700000    1.7375000    0.5652281   -0.1362418    0.8136064
  -4.8390000   -0.1012500    0.0082500   -0.5127678    0.8442972   -0.1556646
  -4.7270000   -0.7837500    1.0485000   -0.2304587    0.5786976    0.7823029
  -4.0220000   -4.8300000    1.1927500    0.4937417   -0.8496169    0.1853920
  -4.2342500   -3.6600000    1.8207500    0.2183778   -0.2628994    0.9397846
  -5.5905000   -0.9787500    0.3997500   -0.9422240    0.3343100   -0.0212290
  -5.9067500   -2.5875000    0.8177500   -0.9975018   -0.0543254    0.0451539
  -5.5410000   -4.0987500    1.0290000   -0.8750315   -0.4733163    0.1014470
  -4.8080000   -4.8300000    1.1895000   -0.4152217   -0.8965243    0.1543861
  -4.4165000   -2.5875000    1.9410000   -0.0211874    0.1672993    0.9856785
  -5.1632500   -1.5637500    1.2847500   -0.5053237    0.3569509    0.7856425
  -4.5970000   -3.6600000    1.7992500   -0.2374811   -0.2599252    0.9359709
  -5.2370000   -2.5875000    1.5422500   -0.5852975    0.1019870    0.8043789
  -4.9837500   -3.3675000    1.6885000   -0.4987147   -0.1214443    0.8582162
   9.5645000   -9.7537500   -0.0447500    0.4135416   -0.2357473   -0.8794354
  10.6190000  -11.5087500    0.3390000    0.6325608   -0.1859399   -0.7518598
   8.2762500  -11.5087500   -0.4130000    0.3848638   -0.0669581   -0.9205414
   9.7985000   -9.4125000   -0.0597500    0.7600867   -0.1395441   -0.6346618
  10.3092500  -11.5087500    1.1355000    0.9428914   -0.1919257   -0.2722505
   8.5262500  -10.0462500   -0.4565000    0.2152784   -0.2650482   -0.9398961
   8.8362500   -8.3887500   -1.2532500    0.4300150    0.0406676   -0.9019053
   9.7452500  -13.4587500    0.0972500    0.7401083   -0.3307560   -0.5855256
   9.8370000  -13.6050000    1.2382500    0.9079125   -0.4028563   -0.1157656
   8.0305000  -10.0462500   -0.4427500    0.0709149   -0.1402772   -0.9875694
   7.5610000  -10.5337500   -0.8642500    0.0947702    0.0370855   -0.9948082
   7.2967500  -11.5087500   -1.3165000    0.0147733   -0.1881097   -0.9820369
   7.3907500  -12.7275000   -0.6995000    0.0737895   -0.5157310   -0.8535670
   7.8962500  -13.7025000   -0.1445000    0.0716635   -0.5384433   -0.8396089
   8.6660000  -13.7025000   -0.1130000    0.2971360   -0.5119713   -0.8059749
  10.1640000   -8.9250000    1.1270000    0.9639915    0.2557450    0.0729028
  10.5340000  -11.5087500    2.2412500    0.9407156    0.0358307    0.3372985
   9.0365000   -7.1700000    0.0255000    0.5912524    0.7991955   -0.1081992
  10.1905000  -14.0925000    2.3807500    0.8784848   -0.2122897    0.4280158
   7.7435000   -8.3887500   -1.2460000   -0.4476473    0.1726240   -0.8773898
   7.5365000   -7.1700000    0.0227500   -0.5763922    0.8130002   -0.0824786
   8.8407500  -14.7262500    1.3387500    0.4144874   -0.7459128   -0.5213581
   9.0452500  -15.9450000    2.5450000    0.5872122   -0.7168466    0.3759160
   6.7095000   -9.3150000   -0.7547500   -0.9245604    0.0949725   -0.3690098
   6.0827500  -11.5087500   -0.2537500   -0.9611168   -0.0697570   -0.2671863
   6.6595000  -13.7025000    0.5672500   -0.7542426   -0.4232683   -0.5019582
   7.7202500  -14.7262500    1.3295000   -0.2737366   -0.7181466   -0.6397920
   9.5717500   -9.7537500    2.0235000    0.6175856    0.3410637    0.7087055
   9.4155000  -11.5087500    2.6835000    0.5183431    0.1411672    0.8434407
   8.8972500   -7.9012500    1.3712500    0.3227149    0.6168698    0.7178626
   9.1122500  -12.6300000    2.8840000    0.4100949    0.0084178    0.9120040
   7.6597500   -7.9012500    1.3700000   -0.3085375    0.7005761    0.6434266
   8.5750000  -13.1662500    3.0992500    0.2121780   -0.0949618    0.9726062
   6.7482500   -9.4125000    0.5435000   -0.9614859    0.2735510    0.0267338
   6.6697500   -9.3150000    1.8490000   -0.7936626    0.4377824    0.4224289
   7.5175000  -15.9450000    2.5260000   -0.5649311   -0.7559932    0.3306466
   8.0065000  -13.1662500    3.1090000   -0.1874516   -0.1222474    0.9746371
   6.9075000  -11.5087500    1.0477500   -0.9821958   -0.0183557    0.1869610
   6.7022500  -13.6050000    1.7927500   -0.9289076   -0.2316342    0.2889226
   8.2720000  -11.5087500    3.2990000    0.0233210    0.1862670    0.9822224
   6.3327500  -11.5087500    2.3677500   -0.8064076    0.0102612    0.5912710
   7.1255000  -13.0687500    2.7502500   -0.5213414   -0.1172795    0.8452506
   5.9927500  -10.2900000    0.0322500    0.7223394    0.0590488   -0.6890131
   6.1927500  -11.5087500    0.3350000    0.7817802   -0.0204459   -0.6232188
   5.1277500  -11.5087500   -0.3550000    0.0851443   -0.0387766   -0.9956138
   6.3312500   -9.8512500    0.9405000    0.9496273    0.2748833   -0.1504895
   6.4160000  -11.5087500    0.9892500    0.9829320   -0.0859263   -0.1626694
   5.4295000   -9.6075000   -0.2932500    0.3522825    0.2947107   -0.8882807
   5.6502500   -8.3887500    0.8850000    0.5326803    0.8155071   -0.2262739
   6.1170000  -12.8250000    0.1417500    0.7425877   -0.1424914   -0.6544156
   6.2945000  -13.1175000    1.0695000    0.8270765   -0.5599437   -0.0490675
   4.7887500   -9.6075000   -0.2880000   -0.3370884    0.3051191   -0.8906592
   4.2560000  -10.3387500   -0.1450000   -0.7320171    0.0583789   -0.6787804
   4.0860000  -11.5087500    0.0195000   -0.7964508   -0.0304886   -0.6039342
   4.1465000  -12.8250000   -0.0205000   -0.7336810   -0.1312004   -0.6667074
   4.7032500  -13.8975000   -0.0745000   -0.3478578   -0.4732635   -0.8093310
   5.5172500  -13.8975000   -0.0545000    0.3812819   -0.4795053   -0.7903789
   6.2120000   -9.9975000    2.4480000    0.9222653    0.2893184    0.2563623
   6.4510000  -11.5087500    2.0982500    0.9797500   -0.0933389    0.1771378
   5.5367500   -9.0225000    2.7712500    0.4787054    0.7666469    0.4278944
   5.9360000  -12.6300000    1.9502500    0.7264852   -0.6399906    0.2502625
   4.5580000   -8.3887500    0.8925000   -0.3483266    0.8766855   -0.3317999
   4.6902500   -9.0225000    2.8077500   -0.1235919    0.9641719    0.2347286
   5.6047500  -14.3850000    1.1590000    0.3157817   -0.9130349    0.2581649
   5.3315000  -12.7275000    1.8272500    0.2062922   -0.8818601    0.4239886
   4.0057500   -9.9487500    0.8740000   -0.7874230    0.4584111   -0.4120974
   4.0500000  -11.5087500    0.8620000   -0.9570544   -0.0524854   -0.2851178
   4.0415000  -12.9712500    1.0067500   -0.8797618   -0.4538362    0.1416045
   4.6007500  -14.3850000    1.1427500   -0.2907239   -0.8225031    0.4888438
   5.9372500  -10.3875000    3.3777500    0.6803569   -0.1039785    0.7254674
   6.2017500  -11.5087500    2.8552500    0.6807910   -0.0141125    0.7323418
   5.4110000   -9.8025000    3.8992500    0.3838593    0.1134541    0.9163952
   5.8485000  -12.5325000    3.4015000    0.7310366    0.0064479    0.6823078
   4.8147500   -9.8025000    3.8925000   -0.2135195    0.3047842    0.9281789
   5.3502500  -12.8737500    3.9392500    0.5234441   -0.3412502    0.7807398
   3.6727500   -9.5100000    2.2955000   -0.5831547    0.7911395   -0.1844691
   3.8812500   -9.8512500    3.4290000   -0.5522502    0.2392667    0.7986058
   4.9082500  -12.7275000    1.8452500    0.1230578   -0.8424728    0.5244964
   4.8542500  -12.8737500    3.9537500   -0.1307265   -0.5336535    0.8355385
   2.9007500  -11.5087500    1.8122500   -0.9708467   -0.0726714   -0.2284196
   3.9490000  -13.0687500    1.8170000   -0.4630348   -0.8522210    0.2435531
   5.0962500  -11.5087500    3.0797500    0.0187284    0.0399667    0.9990255
   3.0487500  -11.5087500    2.9857500   -0.6697701   -0.0156940    0.7424027
   3.9655000  -13.0687500    3.4777500   -0.5528567   -0.3196323    0.7695353
   1.5837500  -10.1925000   -0.2615000    0.3967056    0.0040891   -0.9179368
   1.3810000  -11.8987500   -0.0405000    0.3641227    0.0442507   -0.9302992
   0.3472500  -11.8987500   -0.5252500    0.1044265    0.0562900   -0.9929383
   2.2235000   -9.3150000   -0.0047500    0.7771391    0.3311262   -0.5351731
   2.6177500  -11.8987500    0.2227500    0.6627669    0.0369850   -0.7479118
   0.9560000   -8.2425000   -0.4742500    0.1938525    0.1519115   -0.9691977
   1.0600000   -7.7062500   -0.2642500    0.4167127    0.7696200   -0.4837722
   1.6252500  -13.6537500   -0.4630000    0.3075396    0.1040458   -0.9458297
   2.3167500  -14.6287500   -0.1012500    0.6352632   -0.2551600   -0.7289267
  -0.2815000   -8.2425000   -0.4755000   -0.1352103    0.1371723   -0.9812757
  -0.8217500  -10.2900000   -0.4497500   -0.2853419    0.0236833   -0.9581331
  -0.5320000  -11.8987500   -0.4325000   -0.3698650    0.0402351   -0.9282139
  -0.8812500  -13.6050000   -0.6717500   -0.4295658    0.0125854   -0.9029479
  -0.2997500  -15.7500000   -0.8990000   -0.2094558   -0.1597467   -0.9646809
   1.0102500  -15.7500000   -0.8930000    0.1552997   -0.0950072   -0.9832882
   2.3057500   -9.2175000    0.5677500    0.8355220    0.4798038    0.2677524
   2.9140000  -11.8987500    0.6187500    0.9947812   -0.0434271   -0.0923285
   1.0442500   -7.8525000    0.4775000    0.3294445    0.8230405    0.4626778
   2.2820000  -14.5800000    0.4790000    0.7432763   -0.6596645    0.1112794
  -0.3670000   -7.7062500   -0.2622500   -0.4459843    0.6876167   -0.5729584
  -0.3382500   -7.8525000    0.4672500   -0.4636978    0.7968921    0.3872303
   1.1410000  -16.5787500   -0.4045000    0.4326764   -0.8075554   -0.4008060
   1.0247500  -15.8962500    0.3162500    0.1710112   -0.6764844    0.7163267
  -1.3557500   -9.5587500   -0.0452500   -0.7528367    0.2118072   -0.6231971
  -1.5260000  -11.8987500    0.1197500   -0.8654447    0.0036337   -0.5009914
  -1.4520000  -14.3850000   -0.1380000   -0.9536248   -0.2439662   -0.1762959
  -0.4470000  -16.5787500   -0.3835000   -0.5865041   -0.8036214   -0.1010223
   2.1540000   -9.4612500    1.1557500    0.7298846    0.3788165    0.5690048
   2.8512500  -11.8987500    1.1830000    0.7731782   -0.1012551    0.6260534
   0.9330000   -8.4862500    1.1262500    0.3471995    0.7377195    0.5789839
   1.7837500  -13.8975000    1.0170000    0.3096637   -0.5647735    0.7649440
  -0.2487500   -8.4862500    1.1570000   -0.4121004    0.6960757    0.5879217
   0.6720000  -13.8487500    0.8630000   -0.0375623   -0.5681211    0.8220873
  -1.3700000   -9.5100000    0.4350000   -0.9381537    0.3329978    0.0947637
  -1.1827500   -9.8025000    0.9555000   -0.8517166    0.2800326    0.4429002
  -0.3297500  -15.8962500    0.3225000   -0.2217184   -0.4547354    0.8625872
   0.0310000  -13.8487500    0.8680000   -0.0470372   -0.5067862    0.8607876
  -1.6602500  -11.8987500    0.4172500   -0.9606312   -0.0156028    0.2773883
  -1.3657500  -14.2875000    0.3625000   -0.6403949   -0.2764493    0.7165683
   1.7250000   -9.9975000    1.5087500    0.6630999    0.2467121    0.7067048
   1.9590000  -11.8987500    1.4937500    0.5794896   -0.0317206    0.8143621
   0.8945000   -8.6812500    1.5170000    0.3598859    0.5910888    0.7218699
   1.3387500  -13.3125000    1.3982500    0.5699971   -0.3806574    0.7281505
  -0.1977500   -8.6812500    1.5242500   -0.3579796    0.6180633    0.6998917
   0.6177500  -13.4587500    1.2822500    0.3724590   -0.9000852    0.2260992
  -0.9602500  -10.0950000    1.6095000   -0.8139102    0.3139506    0.4888611
   0.0935000  -13.4587500    1.2800000   -0.3107921   -0.9452595   -0.0994626
  -1.5487500  -11.8987500    0.7442500   -0.8260667   -0.0885460    0.5565729
  -1.0815000  -11.8987500    1.6892500   -0.9649376   -0.0493077    0.2578067
  -0.8397500  -13.5562500    0.8157500   -0.4020704   -0.4102926    0.8185349
  -0.5887500  -13.2150000    1.4862500   -0.8697789   -0.4877041    0.0750296
   1.3200000  -10.5825000    1.9500000    0.7647833    0.4867276    0.4221406
   1.4652500  -11.8987500    1.9590000    0.9869156    0.0629336    0.1484482
   0.7397500   -9.5587500    1.9155000    0.2698872    0.7418052    0.6139104
   1.3807500  -13.3125000    1.9102500    0.9140661   -0.3690960   -0.1680812
  -0.0462500   -9.5587500    1.9117500   -0.3773195    0.7591357    0.5304178
   0.7885000  -14.5312500    1.8310000    0.4664988   -0.7294239   -0.5003195
  -0.6840000  -10.4850000    2.1067500   -0.8741683    0.4355231    0.2148242
  -0.0982500  -14.5312500    1.8070000   -0.4651943   -0.6819052   -0.5644462
  -0.8985000  -11.8987500    2.2832500   -0.9947995    0.0591498   -0.0829172
  -0.7242500  -13.4100000    2.0460000   -0.9159105   -0.2445685   -0.3182674
   1.5700000  -10.1925000    2.8825000    0.7205580    0.5744238    0.3883729
   2.1990000  -11.8987500    2.8330000    0.9769417    0.0916978    0.1928118
   0.7232500   -9.7537500    2.9192500    0.2450927    0.8213800    0.5150383
   1.7115000  -13.7512500    2.7017500    0.8770969   -0.4630055    0.1277769
  -0.0350000   -9.7537500    2.9317500   -0.3740730    0.8019357    0.4657989
   0.8175000  -14.6287500    2.5607500    0.3648128   -0.8925200    0.2651784
  -0.6875000  -10.4850000    2.8927500   -0.8492725    0.4463396    0.2819880
  -0.1135000  -14.6287500    2.5487500   -0.4488399   -0.8177257    0.3603712
  -1.0222500  -11.8987500    2.8872500   -0.9762327    0.0433521    0.2123446
  -0.8240000  -13.5075000    2.7387500   -0.9011544   -0.3444686    0.2631769
   1.2255000  -10.6800000    3.2845000    0.3624334    0.2157463    0.9066949
   1.6205000  -11.8987500    3.2497500    0.4099679    0.0419757    0.9111336
   0.6407500  -10.2412500    3.3217500    0.1440758    0.3516409    0.9249815
   1.2490000  -13.1662500    3.3727500    0.3605163   -0.1394247    0.9222737
   0.0442500  -10.2412500    3.3150000   -0.1722814    0.3592931    0.9171846
   0.6320000  -13.6050000    3.4667500    0.1705955   -0.3101233    0.9352651
  -0.4515000  -10.7775000    3.3290000   -0.4318779    0.2297439    0.8721807
   0.0635000  -13.6050000    3.4765000   -0.1973110   -0.3112739    0.9296112
  -0.7137500  -11.8987500    3.3277500   -0.5274927    0.0280612    0.8490960
  -0.4562500  -13.0200000    3.4017500   -0.4691908   -0.1575171    0.8689352
   0.3537500  -11.8987500    3.4940000    0.0144748    0.0428596    0.9989762
  -3.8547500   -8.8762500    3.5032500   -0.3373442    0.1075507    0.9352175
  -4.1170000   -9.9975000    3.5022500   -0.4402799   -0.0570881    0.8960439
  -3.0037500   -9.9975000    3.3942500    0.1644900   -0.1783185    0.9701266
  -4.1587500   -8.4375000    2.9900000   -0.8643119    0.2814072    0.4168633
  -4.4327500   -9.9975000    2.9445000   -0.9609415    0.1049121    0.2560956
  -3.3027500   -8.2912500    3.5217500   -0.1241706    0.1951348    0.9728844
  -3.4497500   -7.5112500    3.0617500   -0.4082698    0.6925750    0.5946896
  -3.9902500  -11.3137500    3.0875000   -0.2797096   -0.2655714    0.9226236
  -4.7087500  -12.2887500    2.4472500   -0.9251363   -0.1097240    0.3634330
  -2.7340000   -8.2912500    3.5125000    0.3045633    0.2268132    0.9250929
  -1.9102500   -8.4862500    3.1252500    0.6578386    0.1527932    0.7374975
  -1.2030000   -9.9975000    2.7452500    0.6510508    0.0018071    0.7590320
  -1.7670000  -11.7037500    2.6822500    0.4154077   -0.1662237    0.8943188
  -2.6375000  -12.2887500    2.6300000    0.1318003   -0.2686555    0.9541766
  -3.4235000  -12.2887500    2.6267500   -0.0536685   -0.3125017    0.9483999
  -4.2167500   -8.3887500    1.5307500   -0.9746995    0.1966786   -0.1061999
  -4.3122500   -9.9975000    2.1510000   -0.9801556    0.1043556   -0.1685378
  -3.5410000   -7.0237500    0.9450000   -0.5631146    0.8031136   -0.1947063
  -4.7257500  -12.2887500    1.7617500   -0.9706758   -0.0198174   -0.2395741
  -2.5747500   -7.5112500    3.0412500    0.3826887    0.7736897    0.5049293
  -2.5212500   -7.0237500    0.9335000    0.4056695    0.8695242   -0.2817088
  -3.8757500  -14.8725000    1.9150000   -0.4146505   -0.5334800    0.7372002
  -3.9180000  -15.1650000    1.4027500   -0.6671723   -0.6662134   -0.3332279
  -1.6372500   -8.0962500    2.4570000    0.8550210    0.4579359    0.2433799
  -1.0057500   -9.9975000    1.8835000    0.9565715    0.1232291    0.2641696
  -1.0945000  -12.6300000    1.9075000    0.8228206   -0.1663470    0.5434105
  -2.1870000  -14.8725000    1.9142500    0.3712161   -0.5029231    0.7805556
  -3.8732500   -8.8275000    0.4152500   -0.9875304    0.1518271   -0.0416212
  -3.8625000   -9.9975000    0.7217500   -0.9966394    0.0440460   -0.0690635
  -3.4327500   -7.7062500    0.1070000   -0.6078148    0.7893193   -0.0868114
  -4.3227500  -11.8012500    0.8690000   -0.9100661   -0.1246156   -0.3952856
  -2.6185000   -7.7062500    0.1265000    0.5066090    0.8361253   -0.2103372
  -3.7632500  -14.2875000    1.0045000   -0.3605592   -0.3476344   -0.8655330
  -1.5260000   -7.9500000    1.0950000    0.8581778    0.4073206   -0.3124433
  -2.0100000   -8.6325000    0.1777500    0.9182252    0.2923596   -0.2671860
  -2.1402500  -15.1650000    1.3787500    0.5066739   -0.7679428   -0.3918486
  -2.2800000  -14.2875000    1.0352500   -0.0390060   -0.2937757   -0.9550782
  -0.9990000   -9.9975000    1.2867500    0.9524418    0.0832319   -0.2931333
  -1.0315000  -12.7275000    1.3432500    0.9238257   -0.2073120   -0.3218196
  -4.0222500   -8.6325000   -0.4962500   -0.9684908    0.2159898   -0.1239918
  -3.9717500   -9.9975000   -0.1292500   -0.9992528    0.0147662    0.0357197
  -3.5212500   -7.2187500   -0.8447500   -0.5769302    0.7698975   -0.2727809
  -3.9535000  -11.2650000    0.2942500   -0.9457492   -0.2879162   -0.1505412
  -2.5452500   -7.2187500   -0.8442500    0.5404830    0.7766863   -0.3234758
  -3.4392500  -12.4350000    0.7037500   -0.4316941   -0.6699336   -0.6040110
  -1.8765000   -8.4375000   -0.8332500    0.9208091    0.2284640   -0.3160930
  -2.6090000  -12.4350000    0.6955000    0.1374608   -0.6496327   -0.7477178
  -1.8250000   -9.9975000    0.2470000    0.8669547   -0.0718358   -0.4931827
  -1.7195000   -9.9975000   -0.7802500    0.8997662   -0.1010209   -0.4245180
  -1.5565000  -11.9962500    0.6272500    0.3692863   -0.2881078   -0.8835279
  -1.9525000  -11.4600000   -0.0520000    0.6747962   -0.3719278   -0.6374322
  -3.8622500   -8.8762500   -1.2292500   -0.6846069    0.0607566   -0.7263759
  -4.0525000   -9.9975000   -0.9642500   -0.8359495   -0.0547904   -0.5460644
  -3.3370000   -8.1937500   -1.4890000   -0.3021136    0.2236745   -0.9266591
  -3.9402500  -11.2650000   -0.8990000   -0.8059345   -0.2756880   -0.5238947
  -2.6960000   -8.1937500   -1.4942500    0.2130465    0.2162922   -0.9528005
  -3.4205000  -12.1912500   -0.8237500   -0.3750312   -0.6526044   -0.6583761
  -2.3212500   -9.0225000   -1.4280000    0.4583419    0.0428480   -0.8877425
  -2.6342500  -12.1912500   -0.8205000    0.3305985   -0.6364139   -0.6969089
  -2.2810000   -9.9975000   -1.3672500    0.5878544   -0.0814471   -0.8048562
  -2.2377500  -11.1187500   -1.1172500    0.6703341   -0.2715852   -0.6905748
  -3.0142500   -9.9975000   -1.5277500   -0.1026322   -0.1411854   -0.9846488
  13.5857500  -28.4737500    3.0650000    0.3116040   -0.8673690    0.3880385
  13.5602500  -28.7175000    2.5250000    0.2402587   -0.9707046   -0.0028976
  14.2900000  -27.8400000    2.4960000    0.7983108   -0.5974416    0.0759170
  12.8065000  -27.9862500    3.4405000   -0.5516335   -0.6529188    0.5190351
  12.2542500  -28.0350000    2.4467500   -0.7844352   -0.6137852   -0.0890458
  13.9505000  -27.9375000    3.5382500    0.5428187   -0.7127404    0.4442397
  13.7395000  -27.6450000    3.9042500    0.0228864   -0.5318721    0.8465154
  13.6515000  -28.5712500    1.9770000    0.3590268   -0.8119085   -0.4603306
  12.6617500  -27.6450000    1.4807500   -0.5340989   -0.4406850   -0.7214812
  14.5187500  -27.3037500    3.5287500    0.7785189   -0.4931692    0.3881913
  15.0485000  -26.5237500    3.1967500    0.9201512   -0.3252481    0.2180265
  15.2820000  -26.0850000    2.4680000    0.9572033   -0.2893045   -0.0080493
  15.0145000  -26.7187500    1.8255000    0.9073818   -0.3361129   -0.2523616
  14.5482500  -27.5475000    1.5942500    0.7379752   -0.4824550   -0.4718365
  14.0240000  -28.0837500    1.5915000    0.5356749   -0.6342911   -0.5574291
  12.3872500  -26.5237500    3.3862500   -0.8610986   -0.2854586    0.4207405
  11.9077500  -25.8412500    2.3965000   -0.9756355   -0.1763385   -0.1305376
  13.3635000  -26.7675000    4.1002500   -0.3399395   -0.2029818    0.9182807
  12.3112500  -26.1337500    1.5032500   -0.7637313   -0.0785016   -0.6407434
  14.5255000  -26.8162500    3.9077500    0.5573012   -0.0931431    0.8250696
  14.3112500  -25.7437500    4.0840000    0.3822957    0.2219525    0.8969878
  13.4340000  -26.8162500    0.9882500   -0.0628395   -0.2555837   -0.9647425
  13.1317500  -25.9387500    0.9262500   -0.3217356    0.0083036   -0.9467931
  15.1080000  -25.4512500    3.4187500    0.7411688    0.3450077    0.5758806
  15.3865000  -24.5250000    2.4160000    0.9012773    0.4275433    0.0700428
  14.9800000  -25.0612500    1.4302500    0.8588514    0.1441666   -0.4915183
  14.2202500  -25.9387500    0.9920000    0.4649360   -0.0990961   -0.8797809
  11.9770000  -24.5737500    3.1870000   -0.9356691   -0.2789023    0.2161870
  11.7955000  -23.6962500    2.3315000   -0.9230301   -0.1960322   -0.3310391
  12.7712500  -24.8662500    4.0210000   -0.4307992   -0.1489266    0.8900747
  12.1407500  -24.4762500    1.6680000   -0.6841209   -0.0575522   -0.7270945
  13.7025000  -23.8425000    4.0332500    0.5352776    0.2268209    0.8136524
  12.9130000  -24.8175000    1.1755000   -0.2973947    0.0962119   -0.9498945
  14.6535000  -24.7200000    3.2307500    0.5658674    0.7607089    0.3179876
  14.1100000  -23.5500000    3.0672500    0.8172098    0.5262451   -0.2350197
  13.9785000  -25.0125000    0.8897500    0.3537836    0.2042314   -0.9127578
  13.5822500  -24.0862500    1.1865000    0.2833929    0.3458209   -0.8944811
  14.4275000  -24.2812500    2.3875000    0.6221254    0.7822181    0.0330870
  14.4590000  -24.3787500    1.6180000    0.8287245    0.4907216   -0.2690873
  11.1067500  -21.9412500    3.1347500   -0.9520595   -0.2824032    0.1176062
  11.3482500  -21.6487500    2.2610000   -0.8839456   -0.2654985   -0.3849036
  11.5932500  -21.4050000    4.2412500   -0.4870273   -0.1189997    0.8652419
  11.7977500  -22.2825000    1.8072500   -0.6335925   -0.1756616   -0.7534610
  12.7022500  -20.1862500    4.2057500    0.5631534    0.2091808    0.7994383
  12.4515000  -22.7212500    1.5847500   -0.1992871   -0.0081700   -0.9799071
  12.9700000  -20.1862500    2.8970000    0.9278802    0.2850917   -0.2403355
  12.8587500  -22.2825000    1.5945000    0.3909678    0.2122651   -0.8955935
  13.8307500  -23.9400000    2.3807500    0.7946143    0.5938913   -0.1260206
  12.3237500  -21.0637500    2.2612500    0.9391054    0.2869587   -0.1890391
  13.9385000  -23.7450000    1.8047500    0.8504991    0.5231166   -0.0547758
  12.7602500  -21.5025000    2.0255000    0.9294268    0.3476111   -0.1238238
  10.4177500  -19.2600000    2.9625000   -0.8878995   -0.2157924    0.4062857
  10.7840000  -19.9425000    2.1980000   -0.9227214   -0.3479282   -0.1659253
  10.6440000  -17.9437500    3.8060000   -0.4521270   -0.0128449    0.8918611
  10.9757500  -19.7475000    1.6705000   -0.6276326   -0.3263935   -0.7067847
  11.5912500  -16.9200000    3.7897500    0.3643097    0.1715179    0.9153470
  11.3842500  -19.3087500    1.4187500   -0.1287385   -0.1685213   -0.9772548
  11.9422500  -16.7250000    2.7917500    0.9304798    0.1539609    0.3324205
  11.7915000  -18.8212500    1.4287500    0.4407698    0.0118173   -0.8975424
  11.6027500  -17.2125000    2.1452500    0.9908515    0.1192547   -0.0631794
  11.8140000  -17.8950000    1.7790000    0.9019470    0.1442004   -0.4070600
   9.2855000  -16.0425000    2.9087500   -0.6485384   -0.2054968    0.7329182
   9.2327500  -17.1150000    2.0905000   -0.8815851   -0.4663109    0.0732254
   9.6942500  -14.5800000    3.3702500   -0.2730857   -0.0040445    0.9619812
   9.5467500  -16.8712500    1.2210000   -0.5741530   -0.4369696   -0.6923915
  10.4525000  -13.7512500    3.3575000    0.1718969    0.0274902    0.9847313
  10.1857500  -16.1887500    0.7645000   -0.0684220   -0.2640549   -0.9620777
  11.2852500  -13.9462500    2.8250000    0.6372718   -0.0445586    0.7693498
  10.9437500  -15.4087500    0.7517500    0.3864072   -0.1148690   -0.9151473
  11.6960000  -14.6287500    2.0487500    0.9896150   -0.0609437    0.1301846
  11.5100000  -14.8237500    1.2662500    0.7979593   -0.0430266   -0.6011735
   8.6682500  -14.6775000    3.0030000   -0.5329995   -0.2371724    0.8121950
   8.3620000  -15.8475000    2.0380000   -0.8865163   -0.4319678    0.1658090
   9.3035000  -13.2150000    3.3322500   -0.1248165   -0.0804341    0.9889141
   8.7060000  -15.4575000    0.9230000   -0.6605775   -0.4370290   -0.6104449
  10.0615000  -12.3862500    3.3192500    0.1160379   -0.0766269    0.9902846
   9.5307500  -14.5800000    0.2737500   -0.0810513   -0.3261281   -0.9418445
  11.2680000  -11.9962500    3.1152500    0.5013550   -0.1098915    0.8582348
  10.5067500  -13.5075000    0.2740000    0.3904044   -0.1928650   -0.9002152
  12.2240000  -11.9475000    1.9790000    0.9851901   -0.1034263    0.1367608
  11.5847500  -12.5812500    0.7465000    0.7445740   -0.1244427   -0.6558380
   8.2165000  -13.4587500    3.0050000   -0.6984541    0.0825199    0.7108814
   7.7255000  -14.1412500    1.9705000   -0.9809792   -0.0613117    0.1841756
   9.0375000  -12.5325000    3.4037500   -0.3671292    0.2175300    0.9043765
   7.9772500  -14.0437500    0.6900000   -0.8846956   -0.1273970   -0.4484236
   9.8675000  -11.6550000    3.3952500   -0.1741716    0.1892392    0.9663606
   8.8967500  -13.2150000   -0.3177500   -0.3762825   -0.0874217   -0.9223714
  11.1422500  -10.8262500    3.2675000    0.2486948    0.2515862    0.9353370
  10.1787500  -11.8500000   -0.3282500    0.2260107    0.0465877   -0.9730102
  12.3130000  -10.2412500    1.9550000    0.8638617    0.4736568    0.1714414
  11.5337500  -10.7775000    0.3792500    0.6287910    0.2574729   -0.7337094
   8.3835000  -12.3862500    2.6510000   -0.7325222    0.6359316    0.2429038
   7.9310000  -12.7762500    1.9392500   -0.8383448    0.5442950    0.0303465
   9.0277500  -11.8500000    2.8352500   -0.6735367    0.6817027    0.2857092
   8.0085000  -12.9225000    0.8957500   -0.8375055    0.4939828   -0.2335929
   9.5515000  -11.3137500    2.8375000   -0.6394621    0.6839548    0.3511324
   8.7505000  -12.3375000   -0.0642500   -0.7220007    0.5228995   -0.4530905
  10.5512500  -10.5337500    2.9267500   -0.4108259    0.8210954    0.3962630
   9.8872500  -11.1187500   -0.0837500   -0.4495646    0.6790671   -0.5803098
  11.5877500   -9.9000000    1.9112500   -0.1591850    0.9858210    0.0530766
  10.9690000  -10.2900000    0.5785000   -0.1725611    0.8975489   -0.4057446
   9.3300000  -11.7037500    1.9215000   -0.6425293    0.7631583   -0.0688873
   8.2317500  -40.0762500    3.2387500   -0.2417977   -0.9162219    0.3194859
   8.1660000  -40.2225000    2.6377500   -0.3159955   -0.9436812   -0.0980436
   9.0245000  -39.8812500    2.6457500    0.4731536   -0.8808317   -0.0161593
   7.5690000  -38.7600000    3.6065000   -0.8477418   -0.3606004    0.3889746
   7.0292500  -38.1262500    2.6570000   -0.9581992   -0.2609842   -0.1172240
   8.6572500  -39.8325000    3.6722500    0.0545259   -0.8804895    0.4709194
   8.5022500  -39.3450000    4.0702500   -0.3307568   -0.4335078    0.8382547
   8.2850000  -40.0762500    2.1062500   -0.1253520   -0.8161695   -0.5640516
   7.4810000  -37.8825000    1.6795000   -0.7235283   -0.1944408   -0.6623441
   9.3262500  -39.6375000    3.6830000    0.5224443   -0.7307290    0.4394167
   9.9285000  -39.1500000    3.3550000    0.8193109   -0.5386296    0.1964888
  10.2620000  -38.7600000    2.6472500    0.8685123   -0.4924085   -0.0567474
   9.8945000  -39.1500000    1.9845000    0.7771234   -0.5317877   -0.3365725
   9.2825000  -39.6375000    1.7440000    0.4423658   -0.6569649   -0.6104994
   8.7140000  -39.7837500    1.7535000    0.0947528   -0.7203201   -0.6871397
   7.3795000  -36.5662500    3.6100000   -0.9205966   -0.0946628    0.3788678
   7.0735000  -35.1037500    2.6447500   -0.9914852   -0.0025645   -0.1301943
   8.2992500  -37.8825000    4.2910000   -0.4184374   -0.1163341    0.9007644
   7.3757500  -35.7375000    1.7312500   -0.7692758    0.0513877   -0.6368470
   9.4050000  -39.0525000    4.0660000    0.4563051   -0.2141598    0.8636673
   9.3477500  -37.5900000    4.2957500    0.4619561    0.0753008    0.8837004
   8.3257500  -37.5412500    1.1915000   -0.2387344   -0.1579795   -0.9581484
   8.2130000  -36.2250000    1.1265000   -0.2931043    0.0674153   -0.9537007
  10.1892500  -37.9312500    3.6182500    0.8463874    0.0790898    0.5266623
  10.5967500  -36.9075000    2.6527500    0.9886217    0.1373857    0.0612553
  10.1452500  -37.0050000    1.6792500    0.8656183   -0.0072697   -0.5006516
   9.2727500  -37.2975000    1.1755000    0.3763518   -0.1225376   -0.9183375
   7.3437500  -33.7875000    3.4765000   -0.9752945   -0.0768049    0.2071269
   7.2910000  -32.3250000    2.6577500   -0.9518431   -0.0123386   -0.3063373
   8.0657500  -35.0062500    4.3062500   -0.4771204   -0.0706364    0.8759947
   7.5077500  -33.5437500    1.9575000   -0.6739571    0.0641400   -0.7359809
   9.1300000  -34.7137500    4.2827500    0.5924604    0.0679737    0.8027268
   8.1795000  -34.6650000    1.4447500   -0.2249106    0.1385083   -0.9644847
   9.8635000  -36.5175000    3.4677500    0.8713982    0.3780702    0.3126149
   9.5210000  -34.5675000    3.3452500    0.9550656    0.2348594   -0.1808056
   9.1885000  -35.9325000    1.1267500    0.4466893    0.1196593   -0.8866512
   8.9370000  -34.4212500    1.4320000    0.4468283    0.2325881   -0.8638560
   9.7382500  -35.6887500    2.6447500    0.9155877    0.3943657    0.0785799
   9.7417500  -35.7375000    1.8587500    0.9498391    0.2184894   -0.2237590
   6.9487500  -29.6925000    3.5112500   -0.9911022   -0.0791615    0.1070044
   7.2185000  -29.4487500    2.6540000   -0.9289083   -0.0650160   -0.3645577
   7.5080000  -29.6437500    4.6225000   -0.5237798   -0.0457907    0.8506221
   7.5392500  -30.6187500    2.1635000   -0.6764867   -0.0245275   -0.7360463
   8.7737500  -29.2537500    4.6397500    0.6000200    0.0512745    0.7983401
   8.0922500  -31.7400000    1.9200000   -0.2166171    0.0432179   -0.9752996
   9.0295000  -29.3512500    3.2867500    0.9685366    0.0855837   -0.2336927
   8.5440000  -31.5937500    1.9177500    0.4655788    0.1197364   -0.8768692
   9.2140000  -34.6650000    2.6422500    0.9573397    0.2680309   -0.1079820
   8.2667500  -29.6925000    2.6582500    0.9772452    0.0911944   -0.1915080
   9.3495000  -34.4700000    2.0830000    0.9729421    0.2266226   -0.0450096
   8.5742500  -30.5700000    2.3857500    0.9874640    0.1242361   -0.0973661
   6.7355000  -25.7437500    3.4255000   -0.9163189   -0.0484224    0.3975109
   6.9565000  -26.8162500    2.6527500   -0.9794872   -0.1155545   -0.1650818
   7.1627500  -24.4762500    4.3105000   -0.4256784    0.0299351    0.9043792
   7.1765000  -26.6700000    2.1415000   -0.7337544   -0.1243515   -0.6679380
   8.2390000  -24.1837500    4.3312500    0.4153943    0.0553060    0.9079586
   7.6292500  -26.4750000    1.8775000   -0.2506615   -0.0810293   -0.9646777
   8.6062500  -24.1350000    3.3050000    0.9448548   -0.0190870    0.3269328
   8.1252500  -26.3287500    1.8635000    0.4110387   -0.0274051   -0.9112059
   8.1940000  -24.2812500    2.6542500    0.9981412   -0.0417501   -0.0443965
   8.3045000  -25.2562500    2.2675000    0.9234535   -0.0012029   -0.3837085
   6.1907500  -20.6737500    3.5237500   -0.7005719   -0.0807683    0.7089961
   5.9527500  -21.8437500    2.6360000   -0.9802588   -0.1917358    0.0482701
   6.8335000  -19.4062500    3.9702500   -0.2490224    0.0032890    0.9684922
   6.2955000  -21.6975000    1.7830000   -0.7307783   -0.2000452   -0.6526446
   7.6922500  -19.1137500    3.9780000    0.1677776   -0.0303197    0.9853585
   7.0067500  -21.4537500    1.3302500   -0.2330149   -0.1558240   -0.9599078
   8.4527500  -20.0887500    3.4410000    0.5829663   -0.1466805    0.7991465
   7.8655000  -21.2100000    1.3387500    0.2888611   -0.1112748   -0.9508823
   8.7182500  -21.1612500    2.6565000    0.9718725   -0.1990865    0.1258109
   8.5040000  -21.1125000    1.8570000    0.7476961   -0.1244779   -0.6522697
   5.8192500  -18.4312500    3.6472500   -0.6252418   -0.1166698    0.7716611
   5.3117500  -19.4062500    2.6412500   -0.9750046   -0.1719260    0.1407388
   6.6562500  -17.3587500    4.0177500   -0.1740125   -0.0670932    0.9824552
   5.7280000  -19.1625000    1.5305000   -0.7994943   -0.1911809   -0.5694372
   7.5592500  -17.1150000    4.0137500    0.0499700   -0.0958875    0.9941371
   6.6540000  -18.7725000    0.9020000   -0.2734593   -0.1948656   -0.9419381
   8.7372500  -17.7487500    3.7935000    0.4170584   -0.1708329    0.8926805
   7.7745000  -18.4312500    0.9107500    0.2284873   -0.1728033   -0.9580880
   9.6935000  -18.4800000    2.6570000    0.9639073   -0.2370957    0.1211129
   8.9535000  -18.3825000    1.4037500    0.6506636   -0.1883355   -0.7356403
   5.5972500  -16.5300000    3.7067500   -0.5983928    0.1730892    0.7822827
   5.0055000  -16.6762500    2.6520000   -0.9675611    0.1124206    0.2262457
   6.5345000  -16.2862500    4.0980000   -0.1840527    0.2180676    0.9584212
   5.2287500  -16.6762500    1.3550000   -0.9014253    0.0628181   -0.4283531
   7.4660000  -15.9937500    4.1100000   -0.0182283    0.1724046    0.9848575
   6.2772500  -16.4325000    0.3837500   -0.3950871    0.0188315   -0.9184506
   8.8572500  -16.1887500    3.9750000    0.3952081    0.1288767    0.9095061
   7.7485000  -15.9937500    0.3705000    0.2333342    0.0202163   -0.9721864
  10.0445000  -16.4812500    2.6342500    0.9731784    0.1473615    0.1766589
   9.2210000  -16.1400000    1.0702500    0.7200111    0.0823570   -0.6890583
   5.9372500  -15.3112500    3.3777500   -0.2759029    0.8562057    0.4367944
   5.4125000  -15.2625000    2.6620000   -0.5225935    0.8402902    0.1442512
   6.6260000  -15.3112500    3.5502500   -0.1700372    0.8675970    0.4672931
   5.4615000  -15.3600000    1.6020000   -0.5622796    0.7975209   -0.2186369
   7.2227500  -15.1650000    3.5567500   -0.0935763    0.8763256    0.4725431
   6.2760000  -15.2137500    0.6462500   -0.3995311    0.7969193   -0.4530944
   8.3107500  -15.2625000    3.6217500    0.2374283    0.8673641    0.4373869
   7.5582500  -14.8237500    0.6357500    0.0563546    0.8590897   -0.5087131
   9.4037500  -15.3600000    2.6392500    0.4853350    0.8577472    0.1694688
   8.7845000  -15.0187500    1.3062500    0.4623084    0.8608831   -0.2124881
   6.9285000  -15.3112500    2.6365000   -0.0395807    0.9987115    0.0317598
   1.1410000  -41.1487500    3.2355000   -0.4375388   -0.8499582    0.2934806
   1.0752500  -41.2950000    2.6345000   -0.5034008   -0.8576400   -0.1050772
   1.9335000  -41.1975000    2.6422500    0.2258903   -0.9740965   -0.0104691
   0.5790000  -39.6862500    3.6240000   -0.8860516   -0.2610981    0.3830669
   0.1275000  -38.8575000    2.6505000   -0.9815449   -0.1619350   -0.1017190
   1.5945000  -41.0512500    3.6852500   -0.1848204   -0.8686889    0.4595880
   1.4840000  -40.5150000    4.0712500   -0.4273249   -0.3852808    0.8178950
   1.1945000  -41.1487500    2.1027500   -0.3413542   -0.7837976   -0.5187857
   0.5795000  -38.8087500    1.6727500   -0.7489047   -0.1278337   -0.6502309
   2.2637500  -41.0512500    3.6960000    0.3211786   -0.8261177    0.4630052
   2.9102500  -40.7587500    3.3560000    0.7133806   -0.6734261    0.1938697
   3.2720000  -40.4175000    2.6645000    0.7807341   -0.6211984   -0.0675786
   2.8477500  -40.7587500    1.9692500    0.6667365   -0.6615574   -0.3432262
   2.2362500  -41.0512500    1.7282500    0.2742165   -0.7321268   -0.6235348
   1.6395000  -41.0512500    1.7220000   -0.1164552   -0.7450329   -0.6567832
   0.6235000  -37.4437500    3.6120000   -0.9208560   -0.0097690    0.3897804
   0.3895000  -35.8837500    2.6517500   -0.9895838    0.0895139   -0.1127438
   1.3982500  -39.0525000    4.2847500   -0.4616856   -0.0819344    0.8832515
   0.6637500  -36.6150000    1.7215000   -0.7481234    0.1182583   -0.6529367
   2.3870000  -40.5150000    4.0675000    0.3883568   -0.2597776    0.8841350
   2.4745000  -39.0525000    4.3055000    0.4577609    0.0348446    0.8883923
   1.4525000  -38.7112500    1.2010000   -0.2677729   -0.1315629   -0.9544574
   1.4565000  -37.3462500    1.1285000   -0.2628168    0.0897196   -0.9606652
   3.2877500  -39.5887500    3.6117500    0.8509668   -0.0111070    0.5251020
   3.7680000  -38.7112500    2.6505000    0.9983164    0.0249360    0.0523689
   3.2885000  -38.7112500    1.6607500    0.8493889   -0.0915440   -0.5197675
   2.3995000  -38.7112500    1.1850000    0.3335327   -0.1478606   -0.9310710
   0.8217500  -34.6650000    3.4637500   -0.9786503    0.0040255    0.2054931
   0.8692500  -33.2512500    2.6657500   -0.9481747    0.0696490   -0.3100221
   1.3982500  -36.1275000    4.2847500   -0.5017611   -0.0307667    0.8644589
   0.9855000  -34.5187500    1.9447500   -0.6400170    0.1237925   -0.7583229
   2.4745000  -36.1275000    4.3055000    0.5907212    0.0194633    0.8066410
   1.5400000  -35.7862500    1.4395000   -0.1807593    0.1578657   -0.9707752
   3.0625000  -38.1262500    3.4817500    0.9100929    0.2831474    0.3025863
   2.8820000  -36.1275000    3.3400000    0.9754542    0.1467367   -0.1641873
   2.4322500  -37.3462500    1.1290000    0.4728476    0.0725844   -0.8781496
   2.3262500  -35.7862500    1.4427500    0.4859258    0.1890260   -0.8533143
   3.0097500  -37.2487500    2.6630000    0.9530436    0.2924109    0.0787635
   3.0135000  -37.2975000    1.8772500    0.9669579    0.1275307   -0.2207451
   0.7447500  -30.5212500    3.5317500   -0.9956654    0.0009673    0.0930023
   1.0307500  -30.3750000    2.6465000   -0.9260084    0.0119865   -0.3773124
